 -2. -2. 0.003865921
 -2. -1.9 0.005068442
 -2. -1.8 0.006553361
 -2. -1.7 0.008356447
 -2. -1.6 0.010508663
 -2. -1.5 0.013032915
 -2. -1.4 0.015940562
 -2. -1.3 0.019227983
 -2. -1.2 0.022873467
 -2. -1.1 0.02683481
 -2. -1. 0.03104797
 -2. -0.9 0.035427127
 -2. -0.79999995 0.039866384
 -2. -0.7 0.044243123
 -2. -0.59999996 0.04842314
 -2. -0.49999997 0.05226708
 -2. -0.39999998 0.055638015
 -2. -0.29999998 0.05840946
 -2. -0.19999997 0.060473178
 -2. -0.09999997 0.061746247
 -2. 2.9802322E-8 0.06217653
 -2. 0.10000003 0.061746247
 -2. 0.20000003 0.060473178
 -2. 0.30000004 0.058409445
 -2. 0.40000004 0.055638015
 -2. 0.50000006 0.05226708
 -2. 0.6 0.04842313
 -2. 0.70000005 0.044243123
 -2. 0.8000001 0.039866373
 -2. 0.90000004 0.03542712
 -2. 1. 0.03104797
 -2. 1.1 0.02683481
 -2. 1.2 0.022873467
 -2. 1.3000001 0.019227983
 -2. 1.4000001 0.015940554
 -2. 1.5 0.013032915
 -2. 1.6 0.010508663
 -2. 1.7 0.008356447
 -2. 1.8000001 0.006553358
 -2. 1.9000001 0.005068442
 -2. 2. 0.003865921
 -1.9 -2. 0.005068442
 -1.9 -1.9 0.006645015
 -1.9 -1.8 0.008591829
 -1.9 -1.7 0.010955777
 -1.9 -1.6 0.013777453
 -1.9 -1.5 0.017086884
 -1.9 -1.4 0.020898975
 -1.9 -1.3 0.025208978
 -1.9 -1.2 0.029988414
 -1.9 -1.1 0.03518196
 -1.9 -1. 0.04070564
 -1.9 -0.9 0.046446964
 -1.9 -0.79999995 0.05226708
 -1.9 -0.7 0.058005244
 -1.9 -0.59999996 0.06348547
 -1.9 -0.49999997 0.06852509
 -1.9 -0.39999998 0.072944574
 -1.9 -0.29999998 0.076578096
 -1.9 -0.19999997 0.07928377
 -1.9 -0.09999997 0.08095283
 -1.9 2.9802322E-8 0.08151696
 -1.9 0.10000003 0.08095283
 -1.9 0.20000003 0.07928377
 -1.9 0.30000004 0.076578096
 -1.9 0.40000004 0.072944574
 -1.9 0.50000006 0.06852509
 -1.9 0.6 0.06348547
 -1.9 0.70000005 0.058005232
 -1.9 0.8000001 0.05226708
 -1.9 0.90000004 0.046446964
 -1.9 1. 0.04070564
 -1.9 1.1 0.03518196
 -1.9 1.2 0.029988414
 -1.9 1.3000001 0.02520897
 -1.9 1.4000001 0.020898972
 -1.9 1.5 0.017086884
 -1.9 1.6 0.013777453
 -1.9 1.7 0.010955777
 -1.9 1.8000001 0.008591824
 -1.9 1.9000001 0.0066450117
 -1.9 2. 0.005068442
 -1.8 -2. 0.006553361
 -1.8 -1.9 0.008591829
 -1.8 -1.8 0.011109002
 -1.8 -1.7 0.014165523
 -1.8 -1.6 0.017813882
 -1.8 -1.5 0.022092888
 -1.8 -1.4 0.027021818
 -1.8 -1.3 0.03259453
 -1.8 -1.2 0.03877422
 -1.8 -1.1 0.045489334
 -1.8 -1. 0.052631304
 -1.8 -0.9 0.060054697
 -1.8 -0.79999995 0.06757995
 -1.8 -0.7 0.07499923
 -1.8 -0.59999996 0.08208502
 -1.8 -0.49999997 0.08860113
 -1.8 -0.39999998 0.09431541
 -1.8 -0.29999998 0.09901343
 -1.8 -0.19999997 0.10251179
 -1.8 -0.09999997 0.10466985
 -1.8 2.9802322E-8 0.10539925
 -1.8 0.10000003 0.10466985
 -1.8 0.20000003 0.10251179
 -1.8 0.30000004 0.09901343
 -1.8 0.40000004 0.09431539
 -1.8 0.50000006 0.088601105
 -1.8 0.6 0.08208502
 -1.8 0.70000005 0.07499923
 -1.8 0.8000001 0.06757993
 -1.8 0.90000004 0.060054682
 -1.8 1. 0.052631304
 -1.8 1.1 0.045489334
 -1.8 1.2 0.03877422
 -1.8 1.3000001 0.032594524
 -1.8 1.4000001 0.02702181
 -1.8 1.5 0.022092888
 -1.8 1.6 0.017813882
 -1.8 1.7 0.014165523
 -1.8 1.8000001 0.011109002
 -1.8 1.9000001 0.008591824
 -1.8 2. 0.006553361
 -1.7 -2. 0.008356447
 -1.7 -1.9 0.010955777
 -1.7 -1.8 0.014165523
 -1.7 -1.7 0.018063014
 -1.7 -1.6 0.022715176
 -1.7 -1.5 0.028171508
 -1.7 -1.4 0.034456577
 -1.7 -1.3 0.04156257
 -1.7 -1.2 0.049442522
 -1.7 -1.1 0.058005232
 -1.7 -1. 0.06711224
 -1.7 -0.9 0.07657808
 -1.7 -0.79999995 0.086173825
 -1.7 -0.7 0.09563446
 -1.7 -0.59999996 0.104669824
 -1.7 -0.49999997 0.11297874
 -1.7 -0.39999998 0.120265245
 -1.7 -0.29999998 0.12625591
 -1.7 -0.19999997 0.1307168
 -1.7 -0.09999997 0.13346863
 -1.7 2.9802322E-8 0.13439871
 -1.7 0.10000003 0.13346863
 -1.7 0.20000003 0.1307168
 -1.7 0.30000004 0.12625591
 -1.7 0.40000004 0.120265245
 -1.7 0.50000006 0.11297874
 -1.7 0.6 0.104669824
 -1.7 0.70000005 0.09563446
 -1.7 0.8000001 0.086173825
 -1.7 0.90000004 0.07657808
 -1.7 1. 0.06711224
 -1.7 1.1 0.058005232
 -1.7 1.2 0.049442522
 -1.7 1.3000001 0.041562557
 -1.7 1.4000001 0.03445657
 -1.7 1.5 0.028171508
 -1.7 1.6 0.022715176
 -1.7 1.7 0.018063014
 -1.7 1.8000001 0.014165523
 -1.7 1.9000001 0.010955772
 -1.7 2. 0.008356447
 -1.6 -2. 0.010508663
 -1.6 -1.9 0.013777453
 -1.6 -1.8 0.017813882
 -1.6 -1.7 0.022715176
 -1.6 -1.6 0.028565507
 -1.6 -1.5 0.03542712
 -1.6 -1.4 0.04333093
 -1.6 -1.3 0.05226708
 -1.6 -1.2 0.06217653
 -1.6 -1.1 0.072944574
 -1.6 -1. 0.084397115
 -1.6 -0.9 0.09630089
 -1.6 -0.79999995 0.10836804
 -1.6 -0.7 0.120265275
 -1.6 -0.59999996 0.13162772
 -1.6 -0.49999997 0.14207663
 -1.6 -0.39999998 0.15123977
 -1.6 -0.29999998 0.15877333
 -1.6 -0.19999997 0.16438313
 -1.6 -0.09999997 0.1678437
 -1.6 2.9802322E-8 0.16901334
 -1.6 0.10000003 0.1678437
 -1.6 0.20000003 0.16438313
 -1.6 0.30000004 0.15877333
 -1.6 0.40000004 0.15123977
 -1.6 0.50000006 0.14207661
 -1.6 0.6 0.13162772
 -1.6 0.70000005 0.120265245
 -1.6 0.8000001 0.10836804
 -1.6 0.90000004 0.09630089
 -1.6 1. 0.084397115
 -1.6 1.1 0.072944574
 -1.6 1.2 0.06217653
 -1.6 1.3000001 0.052267063
 -1.6 1.4000001 0.04333092
 -1.6 1.5 0.03542712
 -1.6 1.6 0.028565507
 -1.6 1.7 0.022715176
 -1.6 1.8000001 0.017813874
 -1.6 1.9000001 0.013777447
 -1.6 2. 0.010508663
 -1.5 -2. 0.013032915
 -1.5 -1.9 0.017086884
 -1.5 -1.8 0.022092888
 -1.5 -1.7 0.028171508
 -1.5 -1.6 0.03542712
 -1.5 -1.5 0.043936945
 -1.5 -1.4 0.053739287
 -1.5 -1.3 0.06482195
 -1.5 -1.2 0.077111736
 -1.5 -1.1 0.09046632
 -1.5 -1. 0.10466985
 -1.5 -0.9 0.11943299
 -1.5 -0.79999995 0.13439874
 -1.5 -0.7 0.14915374
 -1.5 -0.59999996 0.16324553
 -1.5 -0.49999997 0.17620434
 -1.5 -0.39999998 0.18756855
 -1.5 -0.29999998 0.1969117
 -1.5 -0.19999997 0.203869
 -1.5 -0.09999997 0.20816083
 -1.5 2.9802322E-8 0.20961142
 -1.5 0.10000003 0.20816083
 -1.5 0.20000003 0.203869
 -1.5 0.30000004 0.1969117
 -1.5 0.40000004 0.18756852
 -1.5 0.50000006 0.17620432
 -1.5 0.6 0.16324553
 -1.5 0.70000005 0.14915374
 -1.5 0.8000001 0.13439871
 -1.5 0.90000004 0.11943299
 -1.5 1. 0.10466985
 -1.5 1.1 0.09046632
 -1.5 1.2 0.077111736
 -1.5 1.3000001 0.06482195
 -1.5 1.4000001 0.053739276
 -1.5 1.5 0.043936945
 -1.5 1.6 0.03542712
 -1.5 1.7 0.028171508
 -1.5 1.8000001 0.022092883
 -1.5 1.9000001 0.017086884
 -1.5 2. 0.013032915
 -1.4 -2. 0.015940562
 -1.4 -1.9 0.020898975
 -1.4 -1.8 0.027021818
 -1.4 -1.7 0.034456577
 -1.4 -1.6 0.04333093
 -1.4 -1.5 0.053739287
 -1.4 -1.4 0.06572855
 -1.4 -1.3 0.07928377
 -1.4 -1.2 0.09431539
 -1.4 -1.1 0.11064941
 -1.4 -1. 0.12802172
 -1.4 -0.9 0.14607853
 -1.4 -0.79999995 0.16438314
 -1.4 -0.7 0.18243
 -1.4 -0.59999996 0.19966568
 -1.4 -0.49999997 0.21551558
 -1.4 -0.39999998 0.22941513
 -1.4 -0.29999998 0.24084277
 -1.4 -0.19999997 0.24935225
 -1.4 -0.09999997 0.2546016
 -1.4 2.9802322E-8 0.2563758
 -1.4 0.10000003 0.25460157
 -1.4 0.20000003 0.24935225
 -1.4 0.30000004 0.24084277
 -1.4 0.40000004 0.22941513
 -1.4 0.50000006 0.21551558
 -1.4 0.6 0.19966568
 -1.4 0.70000005 0.18243
 -1.4 0.8000001 0.16438313
 -1.4 0.90000004 0.14607853
 -1.4 1. 0.12802172
 -1.4 1.1 0.11064941
 -1.4 1.2 0.09431539
 -1.4 1.3000001 0.07928375
 -1.4 1.4000001 0.06572854
 -1.4 1.5 0.053739287
 -1.4 1.6 0.04333093
 -1.4 1.7 0.034456577
 -1.4 1.8000001 0.02702181
 -1.4 1.9000001 0.020898972
 -1.4 2. 0.015940562
 -1.3 -2. 0.019227983
 -1.3 -1.9 0.025208978
 -1.3 -1.8 0.03259453
 -1.3 -1.7 0.04156257
 -1.3 -1.6 0.05226708
 -1.3 -1.5 0.06482195
 -1.3 -1.4 0.07928377
 -1.3 -1.3 0.09563448
 -1.3 -1.2 0.113766074
 -1.3 -1.1 0.13346866
 -1.3 -1. 0.15442367
 -1.3 -0.9 0.17620437
 -1.3 -0.79999995 0.19828393
 -1.3 -0.7 0.22005259
 -1.3 -0.59999996 0.24084277
 -1.3 -0.49999997 0.25996143
 -1.3 -0.39999998 0.2767275
 -1.3 -0.29999998 0.29051185
 -1.3 -0.19999997 0.30077624
 -1.3 -0.09999997 0.30710813
 -1.3 2.9802322E-8 0.30924824
 -1.3 0.10000003 0.30710813
 -1.3 0.20000003 0.30077624
 -1.3 0.30000004 0.29051185
 -1.3 0.40000004 0.27672747
 -1.3 0.50000006 0.2599614
 -1.3 0.6 0.24084277
 -1.3 0.70000005 0.22005259
 -1.3 0.8000001 0.1982839
 -1.3 0.90000004 0.17620434
 -1.3 1. 0.15442367
 -1.3 1.1 0.13346866
 -1.3 1.2 0.113766074
 -1.3 1.3000001 0.09563446
 -1.3 1.4000001 0.07928375
 -1.3 1.5 0.06482195
 -1.3 1.6 0.05226708
 -1.3 1.7 0.04156257
 -1.3 1.8000001 0.032594524
 -1.3 1.9000001 0.02520897
 -1.3 2. 0.019227983
 -1.2 -2. 0.022873467
 -1.2 -1.9 0.029988414
 -1.2 -1.8 0.03877422
 -1.2 -1.7 0.049442522
 -1.2 -1.6 0.06217653
 -1.2 -1.5 0.077111736
 -1.2 -1.4 0.09431539
 -1.2 -1.3 0.113766074
 -1.2 -1.2 0.13533528
 -1.2 -1.1 0.15877332
 -1.2 -1. 0.18370126
 -1.2 -0.9 0.20961142
 -1.2 -0.79999995 0.23587711
 -1.2 -0.7 0.26177293
 -1.2 -0.59999996 0.2865048
 -1.2 -0.49999997 0.3092482
 -1.2 -0.39999998 0.329193
 -1.2 -0.29999998 0.34559074
 -1.2 -0.19999997 0.3578012
 -1.2 -0.09999997 0.3653336
 -1.2 2.9802322E-8 0.36787945
 -1.2 0.10000003 0.3653336
 -1.2 0.20000003 0.3578012
 -1.2 0.30000004 0.34559074
 -1.2 0.40000004 0.32919297
 -1.2 0.50000006 0.30924818
 -1.2 0.6 0.2865048
 -1.2 0.70000005 0.26177293
 -1.2 0.8000001 0.23587707
 -1.2 0.90000004 0.20961139
 -1.2 1. 0.18370126
 -1.2 1.1 0.15877332
 -1.2 1.2 0.13533528
 -1.2 1.3000001 0.113766044
 -1.2 1.4000001 0.094315365
 -1.2 1.5 0.077111736
 -1.2 1.6 0.06217653
 -1.2 1.7 0.049442522
 -1.2 1.8000001 0.038774207
 -1.2 1.9000001 0.029988406
 -1.2 2. 0.022873467
 -1.1 -2. 0.02683481
 -1.1 -1.9 0.03518196
 -1.1 -1.8 0.045489334
 -1.1 -1.7 0.058005232
 -1.1 -1.6 0.072944574
 -1.1 -1.5 0.09046632
 -1.1 -1.4 0.11064941
 -1.1 -1.3 0.13346866
 -1.1 -1.2 0.15877332
 -1.1 -1.1 0.18627048
 -1.1 -1. 0.21551558
 -1.1 -0.9 0.24591295
 -1.1 -0.79999995 0.27672747
 -1.1 -0.7 0.3071081
 -1.1 -0.59999996 0.33612314
 -1.1 -0.49999997 0.36280534
 -1.1 -0.39999998 0.38620427
 -1.1 -0.29999998 0.40544188
 -1.1 -0.19999997 0.419767
 -1.1 -0.09999997 0.42860386
 -1.1 2.9802322E-8 0.43159065
 -1.1 0.10000003 0.42860386
 -1.1 0.20000003 0.419767
 -1.1 0.30000004 0.40544188
 -1.1 0.40000004 0.38620424
 -1.1 0.50000006 0.36280534
 -1.1 0.6 0.3361231
 -1.1 0.70000005 0.30710807
 -1.1 0.8000001 0.27672744
 -1.1 0.90000004 0.24591292
 -1.1 1. 0.21551558
 -1.1 1.1 0.18627048
 -1.1 1.2 0.15877332
 -1.1 1.3000001 0.13346863
 -1.1 1.4000001 0.11064938
 -1.1 1.5 0.09046632
 -1.1 1.6 0.072944574
 -1.1 1.7 0.058005232
 -1.1 1.8000001 0.045489322
 -1.1 1.9000001 0.035181943
 -1.1 2. 0.02683481
 -1. -2. 0.03104797
 -1. -1.9 0.04070564
 -1. -1.8 0.052631304
 -1. -1.7 0.06711224
 -1. -1.6 0.084397115
 -1. -1.5 0.10466985
 -1. -1.4 0.12802172
 -1. -1.3 0.15442367
 -1. -1.2 0.18370126
 -1. -1.1 0.21551558
 -1. -1. 0.24935222
 -1. -0.9 0.28452212
 -1. -0.79999995 0.32017463
 -1. -0.7 0.3553251
 -1. -0.59999996 0.3888956
 -1. -0.49999997 0.41976702
 -1. -0.39999998 0.44683966
 -1. -0.29999998 0.46909764
 -1. -0.19999997 0.48567182
 -1. -0.09999997 0.4958961
 -1. 2.9802322E-8 0.4993518
 -1. 0.10000003 0.4958961
 -1. 0.20000003 0.48567182
 -1. 0.30000004 0.4690976
 -1. 0.40000004 0.44683963
 -1. 0.50000006 0.419767
 -1. 0.6 0.38889557
 -1. 0.70000005 0.35532507
 -1. 0.8000001 0.3201746
 -1. 0.90000004 0.2845221
 -1. 1. 0.24935222
 -1. 1.1 0.21551558
 -1. 1.2 0.18370126
 -1. 1.3000001 0.15442364
 -1. 1.4000001 0.12802169
 -1. 1.5 0.10466985
 -1. 1.6 0.084397115
 -1. 1.7 0.06711224
 -1. 1.8000001 0.052631292
 -1. 1.9000001 0.040705632
 -1. 2. 0.03104797
 -0.9 -2. 0.035427127
 -0.9 -1.9 0.046446964
 -0.9 -1.8 0.060054697
 -0.9 -1.7 0.07657808
 -0.9 -1.6 0.09630089
 -0.9 -1.5 0.11943299
 -0.9 -1.4 0.14607853
 -0.9 -1.3 0.17620437
 -0.9 -1.2 0.20961142
 -0.9 -1.1 0.24591295
 -0.9 -1. 0.28452212
 -0.9 -0.9 0.3246525
 -0.9 -0.79999995 0.36533362
 -0.9 -0.7 0.4054419
 -0.9 -0.59999996 0.44374737
 -0.9 -0.49999997 0.47897303
 -0.9 -0.39999998 0.50986415
 -0.9 -0.29999998 0.53526145
 -0.9 -0.19999997 0.5541734
 -0.9 -0.09999997 0.56583977
 -0.9 2.9802322E-8 0.56978285
 -0.9 0.10000003 0.56583977
 -0.9 0.20000003 0.55417335
 -0.9 0.30000004 0.53526145
 -0.9 0.40000004 0.5098641
 -0.9 0.50000006 0.478973
 -0.9 0.6 0.44374734
 -0.9 0.70000005 0.40544188
 -0.9 0.8000001 0.3653336
 -0.9 0.90000004 0.3246525
 -0.9 1. 0.28452212
 -0.9 1.1 0.24591295
 -0.9 1.2 0.20961142
 -0.9 1.3000001 0.17620432
 -0.9 1.4000001 0.1460785
 -0.9 1.5 0.11943299
 -0.9 1.6 0.09630089
 -0.9 1.7 0.07657808
 -0.9 1.8000001 0.060054667
 -0.9 1.9000001 0.046446953
 -0.9 2. 0.035427127
 -0.79999995 -2. 0.039866384
 -0.79999995 -1.9 0.05226708
 -0.79999995 -1.8 0.06757995
 -0.79999995 -1.7 0.086173825
 -0.79999995 -1.6 0.10836804
 -0.79999995 -1.5 0.13439874
 -0.79999995 -1.4 0.16438314
 -0.79999995 -1.3 0.19828393
 -0.79999995 -1.2 0.23587711
 -0.79999995 -1.1 0.27672747
 -0.79999995 -1. 0.32017463
 -0.79999995 -0.9 0.36533362
 -0.79999995 -0.79999995 0.41111237
 -0.79999995 -0.7 0.45624647
 -0.79999995 -0.59999996 0.49935186
 -0.79999995 -0.49999997 0.5389915
 -0.79999995 -0.39999998 0.5737535
 -0.79999995 -0.29999998 0.6023333
 -0.79999995 -0.19999997 0.62361497
 -0.79999995 -0.09999997 0.63674325
 -0.79999995 2.9802322E-8 0.64118046
 -0.79999995 0.10000003 0.63674325
 -0.79999995 0.20000003 0.62361497
 -0.79999995 0.30000004 0.6023333
 -0.79999995 0.40000004 0.5737535
 -0.79999995 0.50000006 0.53899145
 -0.79999995 0.6 0.49935183
 -0.79999995 0.70000005 0.45624647
 -0.79999995 0.8000001 0.4111123
 -0.79999995 0.90000004 0.36533362
 -0.79999995 1. 0.32017463
 -0.79999995 1.1 0.27672747
 -0.79999995 1.2 0.23587711
 -0.79999995 1.3000001 0.1982839
 -0.79999995 1.4000001 0.1643831
 -0.79999995 1.5 0.13439874
 -0.79999995 1.6 0.10836804
 -0.79999995 1.7 0.086173825
 -0.79999995 1.8000001 0.06757992
 -0.79999995 1.9000001 0.052267063
 -0.79999995 2. 0.039866384
 -0.7 -2. 0.044243123
 -0.7 -1.9 0.058005244
 -0.7 -1.8 0.07499923
 -0.7 -1.7 0.09563446
 -0.7 -1.6 0.120265275
 -0.7 -1.5 0.14915374
 -0.7 -1.4 0.18243
 -0.7 -1.3 0.22005259
 -0.7 -1.2 0.26177293
 -0.7 -1.1 0.3071081
 -0.7 -1. 0.3553251
 -0.7 -0.9 0.4054419
 -0.7 -0.79999995 0.45624647
 -0.7 -0.7 0.5063357
 -0.7 -0.59999996 0.5541734
 -0.7 -0.49999997 0.59816486
 -0.7 -0.39999998 0.6367432
 -0.7 -0.29999998 0.66846067
 -0.7 -0.19999997 0.69207877
 -0.7 -0.09999997 0.7066483
 -0.7 2.9802322E-8 0.71157265
 -0.7 0.10000003 0.7066483
 -0.7 0.20000003 0.69207877
 -0.7 0.30000004 0.66846067
 -0.7 0.40000004 0.6367432
 -0.7 0.50000006 0.59816486
 -0.7 0.6 0.55417335
 -0.7 0.70000005 0.5063356
 -0.7 0.8000001 0.45624644
 -0.7 0.90000004 0.40544188
 -0.7 1. 0.3553251
 -0.7 1.1 0.3071081
 -0.7 1.2 0.26177293
 -0.7 1.3000001 0.22005257
 -0.7 1.4000001 0.18242995
 -0.7 1.5 0.14915374
 -0.7 1.6 0.120265275
 -0.7 1.7 0.09563446
 -0.7 1.8000001 0.07499921
 -0.7 1.9000001 0.058005217
 -0.7 2. 0.044243123
 -0.59999996 -2. 0.04842314
 -0.59999996 -1.9 0.06348547
 -0.59999996 -1.8 0.08208502
 -0.59999996 -1.7 0.104669824
 -0.59999996 -1.6 0.13162772
 -0.59999996 -1.5 0.16324553
 -0.59999996 -1.4 0.19966568
 -0.59999996 -1.3 0.24084277
 -0.59999996 -1.2 0.2865048
 -0.59999996 -1.1 0.33612314
 -0.59999996 -1. 0.3888956
 -0.59999996 -0.9 0.44374737
 -0.59999996 -0.79999995 0.49935186
 -0.59999996 -0.7 0.5541734
 -0.59999996 -0.59999996 0.6065307
 -0.59999996 -0.49999997 0.65467846
 -0.59999996 -0.39999998 0.6969016
 -0.59999996 -0.29999998 0.73161566
 -0.59999996 -0.19999997 0.7574652
 -0.59999996 -0.09999997 0.7734112
 -0.59999996 2.9802322E-8 0.77880085
 -0.59999996 0.10000003 0.7734112
 -0.59999996 0.20000003 0.7574652
 -0.59999996 0.30000004 0.73161566
 -0.59999996 0.40000004 0.69690156
 -0.59999996 0.50000006 0.65467846
 -0.59999996 0.6 0.60653067
 -0.59999996 0.70000005 0.55417335
 -0.59999996 0.8000001 0.4993518
 -0.59999996 0.90000004 0.44374734
 -0.59999996 1. 0.3888956
 -0.59999996 1.1 0.33612314
 -0.59999996 1.2 0.2865048
 -0.59999996 1.3000001 0.24084274
 -0.59999996 1.4000001 0.19966564
 -0.59999996 1.5 0.16324553
 -0.59999996 1.6 0.13162772
 -0.59999996 1.7 0.104669824
 -0.59999996 1.8000001 0.082085
 -0.59999996 1.9000001 0.06348546
 -0.59999996 2. 0.04842314
 -0.49999997 -2. 0.05226708
 -0.49999997 -1.9 0.06852509
 -0.49999997 -1.8 0.08860113
 -0.49999997 -1.7 0.11297874
 -0.49999997 -1.6 0.14207663
 -0.49999997 -1.5 0.17620434
 -0.49999997 -1.4 0.21551558
 -0.49999997 -1.3 0.25996143
 -0.49999997 -1.2 0.3092482
 -0.49999997 -1.1 0.36280534
 -0.49999997 -1. 0.41976702
 -0.49999997 -0.9 0.47897303
 -0.49999997 -0.79999995 0.5389915
 -0.49999997 -0.7 0.59816486
 -0.49999997 -0.59999996 0.65467846
 -0.49999997 -0.49999997 0.70664835
 -0.49999997 -0.39999998 0.7522232
 -0.49999997 -0.29999998 0.78969294
 -0.49999997 -0.19999997 0.81759447
 -0.49999997 -0.09999997 0.8348063
 -0.49999997 2.9802322E-8 0.8406238
 -0.49999997 0.10000003 0.8348063
 -0.49999997 0.20000003 0.8175944
 -0.49999997 0.30000004 0.78969294
 -0.49999997 0.40000004 0.7522232
 -0.49999997 0.50000006 0.7066483
 -0.49999997 0.6 0.65467846
 -0.49999997 0.70000005 0.59816486
 -0.49999997 0.8000001 0.53899145
 -0.49999997 0.90000004 0.47897297
 -0.49999997 1. 0.41976702
 -0.49999997 1.1 0.36280534
 -0.49999997 1.2 0.3092482
 -0.49999997 1.3000001 0.25996137
 -0.49999997 1.4000001 0.21551555
 -0.49999997 1.5 0.17620434
 -0.49999997 1.6 0.14207663
 -0.49999997 1.7 0.11297874
 -0.49999997 1.8000001 0.08860108
 -0.49999997 1.9000001 0.068525076
 -0.49999997 2. 0.05226708
 -0.39999998 -2. 0.055638015
 -0.39999998 -1.9 0.072944574
 -0.39999998 -1.8 0.09431541
 -0.39999998 -1.7 0.120265245
 -0.39999998 -1.6 0.15123977
 -0.39999998 -1.5 0.18756855
 -0.39999998 -1.4 0.22941513
 -0.39999998 -1.3 0.2767275
 -0.39999998 -1.2 0.329193
 -0.39999998 -1.1 0.38620427
 -0.39999998 -1. 0.44683966
 -0.39999998 -0.9 0.50986415
 -0.39999998 -0.79999995 0.5737535
 -0.39999998 -0.7 0.6367432
 -0.39999998 -0.59999996 0.6969016
 -0.39999998 -0.49999997 0.7522232
 -0.39999998 -0.39999998 0.80073744
 -0.39999998 -0.29999998 0.8406238
 -0.39999998 -0.19999997 0.87032473
 -0.39999998 -0.09999997 0.8886467
 -0.39999998 2.9802322E-8 0.89483935
 -0.39999998 0.10000003 0.8886467
 -0.39999998 0.20000003 0.87032473
 -0.39999998 0.30000004 0.84062374
 -0.39999998 0.40000004 0.80073744
 -0.39999998 0.50000006 0.75222313
 -0.39999998 0.6 0.69690156
 -0.39999998 0.70000005 0.6367432
 -0.39999998 0.8000001 0.5737534
 -0.39999998 0.90000004 0.5098641
 -0.39999998 1. 0.44683966
 -0.39999998 1.1 0.38620427
 -0.39999998 1.2 0.329193
 -0.39999998 1.3000001 0.27672744
 -0.39999998 1.4000001 0.22941509
 -0.39999998 1.5 0.18756855
 -0.39999998 1.6 0.15123977
 -0.39999998 1.7 0.120265245
 -0.39999998 1.8000001 0.094315365
 -0.39999998 1.9000001 0.07294456
 -0.39999998 2. 0.055638015
 -0.29999998 -2. 0.05840946
 -0.29999998 -1.9 0.076578096
 -0.29999998 -1.8 0.09901343
 -0.29999998 -1.7 0.12625591
 -0.29999998 -1.6 0.15877333
 -0.29999998 -1.5 0.1969117
 -0.29999998 -1.4 0.24084277
 -0.29999998 -1.3 0.29051185
 -0.29999998 -1.2 0.34559074
 -0.29999998 -1.1 0.40544188
 -0.29999998 -1. 0.46909764
 -0.29999998 -0.9 0.53526145
 -0.29999998 -0.79999995 0.6023333
 -0.29999998 -0.7 0.66846067
 -0.29999998 -0.59999996 0.73161566
 -0.29999998 -0.49999997 0.78969294
 -0.29999998 -0.39999998 0.8406238
 -0.29999998 -0.29999998 0.8824969
 -0.29999998 -0.19999997 0.9136774
 -0.29999998 -0.09999997 0.932912
 -0.29999998 2.9802322E-8 0.9394131
 -0.29999998 0.10000003 0.932912
 -0.29999998 0.20000003 0.91367733
 -0.29999998 0.30000004 0.8824969
 -0.29999998 0.40000004 0.84062374
 -0.29999998 0.50000006 0.78969294
 -0.29999998 0.6 0.7316156
 -0.29999998 0.70000005 0.6684606
 -0.29999998 0.8000001 0.6023332
 -0.29999998 0.90000004 0.53526145
 -0.29999998 1. 0.46909764
 -0.29999998 1.1 0.40544188
 -0.29999998 1.2 0.34559074
 -0.29999998 1.3000001 0.2905118
 -0.29999998 1.4000001 0.24084271
 -0.29999998 1.5 0.1969117
 -0.29999998 1.6 0.15877333
 -0.29999998 1.7 0.12625591
 -0.29999998 1.8000001 0.09901341
 -0.29999998 1.9000001 0.07657808
 -0.29999998 2. 0.05840946
 -0.19999997 -2. 0.060473178
 -0.19999997 -1.9 0.07928377
 -0.19999997 -1.8 0.10251179
 -0.19999997 -1.7 0.1307168
 -0.19999997 -1.6 0.16438313
 -0.19999997 -1.5 0.203869
 -0.19999997 -1.4 0.24935225
 -0.19999997 -1.3 0.30077624
 -0.19999997 -1.2 0.3578012
 -0.19999997 -1.1 0.419767
 -0.19999997 -1. 0.48567182
 -0.19999997 -0.9 0.5541734
 -0.19999997 -0.79999995 0.62361497
 -0.19999997 -0.7 0.69207877
 -0.19999997 -0.59999996 0.7574652
 -0.19999997 -0.49999997 0.81759447
 -0.19999997 -0.39999998 0.87032473
 -0.19999997 -0.29999998 0.9136774
 -0.19999997 -0.19999997 0.9459595
 -0.19999997 -0.09999997 0.9658737
 -0.19999997 2.9802322E-8 0.9726045
 -0.19999997 0.10000003 0.96587366
 -0.19999997 0.20000003 0.94595945
 -0.19999997 0.30000004 0.91367733
 -0.19999997 0.40000004 0.87032473
 -0.19999997 0.50000006 0.8175944
 -0.19999997 0.6 0.7574651
 -0.19999997 0.70000005 0.6920787
 -0.19999997 0.8000001 0.6236149
 -0.19999997 0.90000004 0.5541733
 -0.19999997 1. 0.48567182
 -0.19999997 1.1 0.419767
 -0.19999997 1.2 0.3578012
 -0.19999997 1.3000001 0.30077615
 -0.19999997 1.4000001 0.24935219
 -0.19999997 1.5 0.203869
 -0.19999997 1.6 0.16438313
 -0.19999997 1.7 0.1307168
 -0.19999997 1.8000001 0.10251177
 -0.19999997 1.9000001 0.07928373
 -0.19999997 2. 0.060473178
 -0.09999997 -2. 0.061746247
 -0.09999997 -1.9 0.08095283
 -0.09999997 -1.8 0.10466985
 -0.09999997 -1.7 0.13346863
 -0.09999997 -1.6 0.1678437
 -0.09999997 -1.5 0.20816083
 -0.09999997 -1.4 0.2546016
 -0.09999997 -1.3 0.30710813
 -0.09999997 -1.2 0.3653336
 -0.09999997 -1.1 0.42860386
 -0.09999997 -1. 0.4958961
 -0.09999997 -0.9 0.56583977
 -0.09999997 -0.79999995 0.63674325
 -0.09999997 -0.7 0.7066483
 -0.09999997 -0.59999996 0.7734112
 -0.09999997 -0.49999997 0.8348063
 -0.09999997 -0.39999998 0.8886467
 -0.09999997 -0.29999998 0.932912
 -0.09999997 -0.19999997 0.9658737
 -0.09999997 -0.09999997 0.9862071
 -0.09999997 2.9802322E-8 0.9930796
 -0.09999997 0.10000003 0.9862071
 -0.09999997 0.20000003 0.96587366
 -0.09999997 0.30000004 0.93291193
 -0.09999997 0.40000004 0.88864666
 -0.09999997 0.50000006 0.83480626
 -0.09999997 0.6 0.77341115
 -0.09999997 0.70000005 0.7066483
 -0.09999997 0.8000001 0.6367431
 -0.09999997 0.90000004 0.5658397
 -0.09999997 1. 0.4958961
 -0.09999997 1.1 0.42860386
 -0.09999997 1.2 0.3653336
 -0.09999997 1.3000001 0.30710807
 -0.09999997 1.4000001 0.25460154
 -0.09999997 1.5 0.20816083
 -0.09999997 1.6 0.1678437
 -0.09999997 1.7 0.13346863
 -0.09999997 1.8000001 0.104669824
 -0.09999997 1.9000001 0.080952816
 -0.09999997 2. 0.061746247
 2.9802322E-8 -2. 0.06217653
 2.9802322E-8 -1.9 0.08151696
 2.9802322E-8 -1.8 0.10539925
 2.9802322E-8 -1.7 0.13439871
 2.9802322E-8 -1.6 0.16901334
 2.9802322E-8 -1.5 0.20961142
 2.9802322E-8 -1.4 0.2563758
 2.9802322E-8 -1.3 0.30924824
 2.9802322E-8 -1.2 0.36787945
 2.9802322E-8 -1.1 0.43159065
 2.9802322E-8 -1. 0.4993518
 2.9802322E-8 -0.9 0.56978285
 2.9802322E-8 -0.79999995 0.64118046
 2.9802322E-8 -0.7 0.71157265
 2.9802322E-8 -0.59999996 0.77880085
 2.9802322E-8 -0.49999997 0.8406238
 2.9802322E-8 -0.39999998 0.89483935
 2.9802322E-8 -0.29999998 0.9394131
 2.9802322E-8 -0.19999997 0.9726045
 2.9802322E-8 -0.09999997 0.9930796
 2.9802322E-8 2.9802322E-8 1.
 2.9802322E-8 0.10000003 0.9930796
 2.9802322E-8 0.20000003 0.97260445
 2.9802322E-8 0.30000004 0.9394131
 2.9802322E-8 0.40000004 0.8948393
 2.9802322E-8 0.50000006 0.84062374
 2.9802322E-8 0.6 0.7788008
 2.9802322E-8 0.70000005 0.71157265
 2.9802322E-8 0.8000001 0.6411804
 2.9802322E-8 0.90000004 0.56978285
 2.9802322E-8 1. 0.4993518
 2.9802322E-8 1.1 0.43159065
 2.9802322E-8 1.2 0.36787945
 2.9802322E-8 1.3000001 0.30924818
 2.9802322E-8 1.4000001 0.25637573
 2.9802322E-8 1.5 0.20961142
 2.9802322E-8 1.6 0.16901334
 2.9802322E-8 1.7 0.13439871
 2.9802322E-8 1.8000001 0.10539922
 2.9802322E-8 1.9000001 0.081516944
 2.9802322E-8 2. 0.06217653
 0.10000003 -2. 0.061746247
 0.10000003 -1.9 0.08095283
 0.10000003 -1.8 0.10466985
 0.10000003 -1.7 0.13346863
 0.10000003 -1.6 0.1678437
 0.10000003 -1.5 0.20816083
 0.10000003 -1.4 0.25460157
 0.10000003 -1.3 0.30710813
 0.10000003 -1.2 0.3653336
 0.10000003 -1.1 0.42860386
 0.10000003 -1. 0.4958961
 0.10000003 -0.9 0.56583977
 0.10000003 -0.79999995 0.63674325
 0.10000003 -0.7 0.7066483
 0.10000003 -0.59999996 0.7734112
 0.10000003 -0.49999997 0.8348063
 0.10000003 -0.39999998 0.8886467
 0.10000003 -0.29999998 0.932912
 0.10000003 -0.19999997 0.96587366
 0.10000003 -0.09999997 0.9862071
 0.10000003 2.9802322E-8 0.9930796
 0.10000003 0.10000003 0.9862071
 0.10000003 0.20000003 0.96587366
 0.10000003 0.30000004 0.93291193
 0.10000003 0.40000004 0.88864666
 0.10000003 0.50000006 0.83480626
 0.10000003 0.6 0.77341115
 0.10000003 0.70000005 0.7066483
 0.10000003 0.8000001 0.6367431
 0.10000003 0.90000004 0.5658397
 0.10000003 1. 0.4958961
 0.10000003 1.1 0.42860386
 0.10000003 1.2 0.3653336
 0.10000003 1.3000001 0.30710807
 0.10000003 1.4000001 0.25460154
 0.10000003 1.5 0.20816083
 0.10000003 1.6 0.1678437
 0.10000003 1.7 0.13346863
 0.10000003 1.8000001 0.104669824
 0.10000003 1.9000001 0.080952816
 0.10000003 2. 0.061746247
 0.20000003 -2. 0.060473178
 0.20000003 -1.9 0.07928377
 0.20000003 -1.8 0.10251179
 0.20000003 -1.7 0.1307168
 0.20000003 -1.6 0.16438313
 0.20000003 -1.5 0.203869
 0.20000003 -1.4 0.24935225
 0.20000003 -1.3 0.30077624
 0.20000003 -1.2 0.3578012
 0.20000003 -1.1 0.419767
 0.20000003 -1. 0.48567182
 0.20000003 -0.9 0.55417335
 0.20000003 -0.79999995 0.62361497
 0.20000003 -0.7 0.69207877
 0.20000003 -0.59999996 0.7574652
 0.20000003 -0.49999997 0.8175944
 0.20000003 -0.39999998 0.87032473
 0.20000003 -0.29999998 0.91367733
 0.20000003 -0.19999997 0.94595945
 0.20000003 -0.09999997 0.96587366
 0.20000003 2.9802322E-8 0.97260445
 0.20000003 0.10000003 0.96587366
 0.20000003 0.20000003 0.94595945
 0.20000003 0.30000004 0.91367733
 0.20000003 0.40000004 0.87032473
 0.20000003 0.50000006 0.8175944
 0.20000003 0.6 0.7574651
 0.20000003 0.70000005 0.6920787
 0.20000003 0.8000001 0.6236149
 0.20000003 0.90000004 0.5541733
 0.20000003 1. 0.48567182
 0.20000003 1.1 0.419767
 0.20000003 1.2 0.3578012
 0.20000003 1.3000001 0.30077615
 0.20000003 1.4000001 0.24935219
 0.20000003 1.5 0.203869
 0.20000003 1.6 0.16438313
 0.20000003 1.7 0.1307168
 0.20000003 1.8000001 0.10251177
 0.20000003 1.9000001 0.07928373
 0.20000003 2. 0.060473178
 0.30000004 -2. 0.058409445
 0.30000004 -1.9 0.076578096
 0.30000004 -1.8 0.09901343
 0.30000004 -1.7 0.12625591
 0.30000004 -1.6 0.15877333
 0.30000004 -1.5 0.1969117
 0.30000004 -1.4 0.24084277
 0.30000004 -1.3 0.29051185
 0.30000004 -1.2 0.34559074
 0.30000004 -1.1 0.40544188
 0.30000004 -1. 0.4690976
 0.30000004 -0.9 0.53526145
 0.30000004 -0.79999995 0.6023333
 0.30000004 -0.7 0.66846067
 0.30000004 -0.59999996 0.73161566
 0.30000004 -0.49999997 0.78969294
 0.30000004 -0.39999998 0.84062374
 0.30000004 -0.29999998 0.8824969
 0.30000004 -0.19999997 0.91367733
 0.30000004 -0.09999997 0.93291193
 0.30000004 2.9802322E-8 0.9394131
 0.30000004 0.10000003 0.93291193
 0.30000004 0.20000003 0.91367733
 0.30000004 0.30000004 0.8824969
 0.30000004 0.40000004 0.84062374
 0.30000004 0.50000006 0.7896929
 0.30000004 0.6 0.7316156
 0.30000004 0.70000005 0.6684606
 0.30000004 0.8000001 0.6023332
 0.30000004 0.90000004 0.53526145
 0.30000004 1. 0.4690976
 0.30000004 1.1 0.40544188
 0.30000004 1.2 0.34559074
 0.30000004 1.3000001 0.2905118
 0.30000004 1.4000001 0.24084271
 0.30000004 1.5 0.1969117
 0.30000004 1.6 0.15877333
 0.30000004 1.7 0.12625591
 0.30000004 1.8000001 0.09901341
 0.30000004 1.9000001 0.07657808
 0.30000004 2. 0.058409445
 0.40000004 -2. 0.055638015
 0.40000004 -1.9 0.072944574
 0.40000004 -1.8 0.09431539
 0.40000004 -1.7 0.120265245
 0.40000004 -1.6 0.15123977
 0.40000004 -1.5 0.18756852
 0.40000004 -1.4 0.22941513
 0.40000004 -1.3 0.27672747
 0.40000004 -1.2 0.32919297
 0.40000004 -1.1 0.38620424
 0.40000004 -1. 0.44683963
 0.40000004 -0.9 0.5098641
 0.40000004 -0.79999995 0.5737535
 0.40000004 -0.7 0.6367432
 0.40000004 -0.59999996 0.69690156
 0.40000004 -0.49999997 0.7522232
 0.40000004 -0.39999998 0.80073744
 0.40000004 -0.29999998 0.84062374
 0.40000004 -0.19999997 0.87032473
 0.40000004 -0.09999997 0.88864666
 0.40000004 2.9802322E-8 0.8948393
 0.40000004 0.10000003 0.88864666
 0.40000004 0.20000003 0.87032473
 0.40000004 0.30000004 0.84062374
 0.40000004 0.40000004 0.8007374
 0.40000004 0.50000006 0.75222313
 0.40000004 0.6 0.69690156
 0.40000004 0.70000005 0.6367431
 0.40000004 0.8000001 0.5737534
 0.40000004 0.90000004 0.5098641
 0.40000004 1. 0.44683963
 0.40000004 1.1 0.38620424
 0.40000004 1.2 0.32919297
 0.40000004 1.3000001 0.2767274
 0.40000004 1.4000001 0.22941509
 0.40000004 1.5 0.18756852
 0.40000004 1.6 0.15123977
 0.40000004 1.7 0.120265245
 0.40000004 1.8000001 0.094315365
 0.40000004 1.9000001 0.07294456
 0.40000004 2. 0.055638015
 0.50000006 -2. 0.05226708
 0.50000006 -1.9 0.06852509
 0.50000006 -1.8 0.088601105
 0.50000006 -1.7 0.11297874
 0.50000006 -1.6 0.14207661
 0.50000006 -1.5 0.17620432
 0.50000006 -1.4 0.21551558
 0.50000006 -1.3 0.2599614
 0.50000006 -1.2 0.30924818
 0.50000006 -1.1 0.36280534
 0.50000006 -1. 0.419767
 0.50000006 -0.9 0.478973
 0.50000006 -0.79999995 0.53899145
 0.50000006 -0.7 0.59816486
 0.50000006 -0.59999996 0.65467846
 0.50000006 -0.49999997 0.7066483
 0.50000006 -0.39999998 0.75222313
 0.50000006 -0.29999998 0.78969294
 0.50000006 -0.19999997 0.8175944
 0.50000006 -0.09999997 0.83480626
 0.50000006 2.9802322E-8 0.84062374
 0.50000006 0.10000003 0.83480626
 0.50000006 0.20000003 0.8175944
 0.50000006 0.30000004 0.7896929
 0.50000006 0.40000004 0.75222313
 0.50000006 0.50000006 0.70664823
 0.50000006 0.6 0.6546784
 0.50000006 0.70000005 0.5981648
 0.50000006 0.8000001 0.5389914
 0.50000006 0.90000004 0.47897294
 0.50000006 1. 0.419767
 0.50000006 1.1 0.36280534
 0.50000006 1.2 0.30924818
 0.50000006 1.3000001 0.25996134
 0.50000006 1.4000001 0.21551552
 0.50000006 1.5 0.17620432
 0.50000006 1.6 0.14207661
 0.50000006 1.7 0.11297874
 0.50000006 1.8000001 0.08860108
 0.50000006 1.9000001 0.068525076
 0.50000006 2. 0.05226708
 0.6 -2. 0.04842313
 0.6 -1.9 0.06348547
 0.6 -1.8 0.08208502
 0.6 -1.7 0.104669824
 0.6 -1.6 0.13162772
 0.6 -1.5 0.16324553
 0.6 -1.4 0.19966568
 0.6 -1.3 0.24084277
 0.6 -1.2 0.2865048
 0.6 -1.1 0.3361231
 0.6 -1. 0.38889557
 0.6 -0.9 0.44374734
 0.6 -0.79999995 0.49935183
 0.6 -0.7 0.55417335
 0.6 -0.59999996 0.60653067
 0.6 -0.49999997 0.65467846
 0.6 -0.39999998 0.69690156
 0.6 -0.29999998 0.7316156
 0.6 -0.19999997 0.7574651
 0.6 -0.09999997 0.77341115
 0.6 2.9802322E-8 0.7788008
 0.6 0.10000003 0.77341115
 0.6 0.20000003 0.7574651
 0.6 0.30000004 0.7316156
 0.6 0.40000004 0.69690156
 0.6 0.50000006 0.6546784
 0.6 0.6 0.60653067
 0.6 0.70000005 0.5541733
 0.6 0.8000001 0.49935177
 0.6 0.90000004 0.4437473
 0.6 1. 0.38889557
 0.6 1.1 0.3361231
 0.6 1.2 0.2865048
 0.6 1.3000001 0.24084271
 0.6 1.4000001 0.19966564
 0.6 1.5 0.16324553
 0.6 1.6 0.13162772
 0.6 1.7 0.104669824
 0.6 1.8000001 0.082085
 0.6 1.9000001 0.06348546
 0.6 2. 0.04842313
 0.70000005 -2. 0.044243123
 0.70000005 -1.9 0.058005232
 0.70000005 -1.8 0.07499923
 0.70000005 -1.7 0.09563446
 0.70000005 -1.6 0.120265245
 0.70000005 -1.5 0.14915374
 0.70000005 -1.4 0.18243
 0.70000005 -1.3 0.22005259
 0.70000005 -1.2 0.26177293
 0.70000005 -1.1 0.30710807
 0.70000005 -1. 0.35532507
 0.70000005 -0.9 0.40544188
 0.70000005 -0.79999995 0.45624647
 0.70000005 -0.7 0.5063356
 0.70000005 -0.59999996 0.55417335
 0.70000005 -0.49999997 0.59816486
 0.70000005 -0.39999998 0.6367432
 0.70000005 -0.29999998 0.6684606
 0.70000005 -0.19999997 0.6920787
 0.70000005 -0.09999997 0.7066483
 0.70000005 2.9802322E-8 0.71157265
 0.70000005 0.10000003 0.7066483
 0.70000005 0.20000003 0.6920787
 0.70000005 0.30000004 0.6684606
 0.70000005 0.40000004 0.6367431
 0.70000005 0.50000006 0.5981648
 0.70000005 0.6 0.5541733
 0.70000005 0.70000005 0.5063356
 0.70000005 0.8000001 0.4562464
 0.70000005 0.90000004 0.40544185
 0.70000005 1. 0.35532507
 0.70000005 1.1 0.30710807
 0.70000005 1.2 0.26177293
 0.70000005 1.3000001 0.22005254
 0.70000005 1.4000001 0.18242995
 0.70000005 1.5 0.14915374
 0.70000005 1.6 0.120265245
 0.70000005 1.7 0.09563446
 0.70000005 1.8000001 0.07499919
 0.70000005 1.9000001 0.058005217
 0.70000005 2. 0.044243123
 0.8000001 -2. 0.039866373
 0.8000001 -1.9 0.05226708
 0.8000001 -1.8 0.06757993
 0.8000001 -1.7 0.086173825
 0.8000001 -1.6 0.10836804
 0.8000001 -1.5 0.13439871
 0.8000001 -1.4 0.16438313
 0.8000001 -1.3 0.1982839
 0.8000001 -1.2 0.23587707
 0.8000001 -1.1 0.27672744
 0.8000001 -1. 0.3201746
 0.8000001 -0.9 0.3653336
 0.8000001 -0.79999995 0.4111123
 0.8000001 -0.7 0.45624644
 0.8000001 -0.59999996 0.4993518
 0.8000001 -0.49999997 0.53899145
 0.8000001 -0.39999998 0.5737534
 0.8000001 -0.29999998 0.6023332
 0.8000001 -0.19999997 0.6236149
 0.8000001 -0.09999997 0.6367431
 0.8000001 2.9802322E-8 0.6411804
 0.8000001 0.10000003 0.6367431
 0.8000001 0.20000003 0.6236149
 0.8000001 0.30000004 0.6023332
 0.8000001 0.40000004 0.5737534
 0.8000001 0.50000006 0.5389914
 0.8000001 0.6 0.49935177
 0.8000001 0.70000005 0.4562464
 0.8000001 0.8000001 0.41111225
 0.8000001 0.90000004 0.36533353
 0.8000001 1. 0.3201746
 0.8000001 1.1 0.27672744
 0.8000001 1.2 0.23587707
 0.8000001 1.3000001 0.19828387
 0.8000001 1.4000001 0.16438308
 0.8000001 1.5 0.13439871
 0.8000001 1.6 0.10836804
 0.8000001 1.7 0.086173825
 0.8000001 1.8000001 0.06757992
 0.8000001 1.9000001 0.052267052
 0.8000001 2. 0.039866373
 0.90000004 -2. 0.03542712
 0.90000004 -1.9 0.046446964
 0.90000004 -1.8 0.060054682
 0.90000004 -1.7 0.07657808
 0.90000004 -1.6 0.09630089
 0.90000004 -1.5 0.11943299
 0.90000004 -1.4 0.14607853
 0.90000004 -1.3 0.17620434
 0.90000004 -1.2 0.20961139
 0.90000004 -1.1 0.24591292
 0.90000004 -1. 0.2845221
 0.90000004 -0.9 0.3246525
 0.90000004 -0.79999995 0.36533362
 0.90000004 -0.7 0.40544188
 0.90000004 -0.59999996 0.44374734
 0.90000004 -0.49999997 0.47897297
 0.90000004 -0.39999998 0.5098641
 0.90000004 -0.29999998 0.53526145
 0.90000004 -0.19999997 0.5541733
 0.90000004 -0.09999997 0.5658397
 0.90000004 2.9802322E-8 0.56978285
 0.90000004 0.10000003 0.5658397
 0.90000004 0.20000003 0.5541733
 0.90000004 0.30000004 0.53526145
 0.90000004 0.40000004 0.5098641
 0.90000004 0.50000006 0.47897294
 0.90000004 0.6 0.4437473
 0.90000004 0.70000005 0.40544185
 0.90000004 0.8000001 0.36533353
 0.90000004 0.90000004 0.32465246
 0.90000004 1. 0.2845221
 0.90000004 1.1 0.24591292
 0.90000004 1.2 0.20961139
 0.90000004 1.3000001 0.1762043
 0.90000004 1.4000001 0.1460785
 0.90000004 1.5 0.11943299
 0.90000004 1.6 0.09630089
 0.90000004 1.7 0.07657808
 0.90000004 1.8000001 0.060054667
 0.90000004 1.9000001 0.046446953
 0.90000004 2. 0.03542712
 1. -2. 0.03104797
 1. -1.9 0.04070564
 1. -1.8 0.052631304
 1. -1.7 0.06711224
 1. -1.6 0.084397115
 1. -1.5 0.10466985
 1. -1.4 0.12802172
 1. -1.3 0.15442367
 1. -1.2 0.18370126
 1. -1.1 0.21551558
 1. -1. 0.24935222
 1. -0.9 0.28452212
 1. -0.79999995 0.32017463
 1. -0.7 0.3553251
 1. -0.59999996 0.3888956
 1. -0.49999997 0.41976702
 1. -0.39999998 0.44683966
 1. -0.29999998 0.46909764
 1. -0.19999997 0.48567182
 1. -0.09999997 0.4958961
 1. 2.9802322E-8 0.4993518
 1. 0.10000003 0.4958961
 1. 0.20000003 0.48567182
 1. 0.30000004 0.4690976
 1. 0.40000004 0.44683963
 1. 0.50000006 0.419767
 1. 0.6 0.38889557
 1. 0.70000005 0.35532507
 1. 0.8000001 0.3201746
 1. 0.90000004 0.2845221
 1. 1. 0.24935222
 1. 1.1 0.21551558
 1. 1.2 0.18370126
 1. 1.3000001 0.15442364
 1. 1.4000001 0.12802169
 1. 1.5 0.10466985
 1. 1.6 0.084397115
 1. 1.7 0.06711224
 1. 1.8000001 0.052631292
 1. 1.9000001 0.040705632
 1. 2. 0.03104797
 1.1 -2. 0.02683481
 1.1 -1.9 0.03518196
 1.1 -1.8 0.045489334
 1.1 -1.7 0.058005232
 1.1 -1.6 0.072944574
 1.1 -1.5 0.09046632
 1.1 -1.4 0.11064941
 1.1 -1.3 0.13346866
 1.1 -1.2 0.15877332
 1.1 -1.1 0.18627048
 1.1 -1. 0.21551558
 1.1 -0.9 0.24591295
 1.1 -0.79999995 0.27672747
 1.1 -0.7 0.3071081
 1.1 -0.59999996 0.33612314
 1.1 -0.49999997 0.36280534
 1.1 -0.39999998 0.38620427
 1.1 -0.29999998 0.40544188
 1.1 -0.19999997 0.419767
 1.1 -0.09999997 0.42860386
 1.1 2.9802322E-8 0.43159065
 1.1 0.10000003 0.42860386
 1.1 0.20000003 0.419767
 1.1 0.30000004 0.40544188
 1.1 0.40000004 0.38620424
 1.1 0.50000006 0.36280534
 1.1 0.6 0.3361231
 1.1 0.70000005 0.30710807
 1.1 0.8000001 0.27672744
 1.1 0.90000004 0.24591292
 1.1 1. 0.21551558
 1.1 1.1 0.18627048
 1.1 1.2 0.15877332
 1.1 1.3000001 0.13346863
 1.1 1.4000001 0.11064938
 1.1 1.5 0.09046632
 1.1 1.6 0.072944574
 1.1 1.7 0.058005232
 1.1 1.8000001 0.045489322
 1.1 1.9000001 0.035181943
 1.1 2. 0.02683481
 1.2 -2. 0.022873467
 1.2 -1.9 0.029988414
 1.2 -1.8 0.03877422
 1.2 -1.7 0.049442522
 1.2 -1.6 0.06217653
 1.2 -1.5 0.077111736
 1.2 -1.4 0.09431539
 1.2 -1.3 0.113766074
 1.2 -1.2 0.13533528
 1.2 -1.1 0.15877332
 1.2 -1. 0.18370126
 1.2 -0.9 0.20961142
 1.2 -0.79999995 0.23587711
 1.2 -0.7 0.26177293
 1.2 -0.59999996 0.2865048
 1.2 -0.49999997 0.3092482
 1.2 -0.39999998 0.329193
 1.2 -0.29999998 0.34559074
 1.2 -0.19999997 0.3578012
 1.2 -0.09999997 0.3653336
 1.2 2.9802322E-8 0.36787945
 1.2 0.10000003 0.3653336
 1.2 0.20000003 0.3578012
 1.2 0.30000004 0.34559074
 1.2 0.40000004 0.32919297
 1.2 0.50000006 0.30924818
 1.2 0.6 0.2865048
 1.2 0.70000005 0.26177293
 1.2 0.8000001 0.23587707
 1.2 0.90000004 0.20961139
 1.2 1. 0.18370126
 1.2 1.1 0.15877332
 1.2 1.2 0.13533528
 1.2 1.3000001 0.113766044
 1.2 1.4000001 0.094315365
 1.2 1.5 0.077111736
 1.2 1.6 0.06217653
 1.2 1.7 0.049442522
 1.2 1.8000001 0.038774207
 1.2 1.9000001 0.029988406
 1.2 2. 0.022873467
 1.3000001 -2. 0.019227983
 1.3000001 -1.9 0.02520897
 1.3000001 -1.8 0.032594524
 1.3000001 -1.7 0.041562557
 1.3000001 -1.6 0.052267063
 1.3000001 -1.5 0.06482195
 1.3000001 -1.4 0.07928375
 1.3000001 -1.3 0.09563446
 1.3000001 -1.2 0.113766044
 1.3000001 -1.1 0.13346863
 1.3000001 -1. 0.15442364
 1.3000001 -0.9 0.17620432
 1.3000001 -0.79999995 0.1982839
 1.3000001 -0.7 0.22005257
 1.3000001 -0.59999996 0.24084274
 1.3000001 -0.49999997 0.25996137
 1.3000001 -0.39999998 0.27672744
 1.3000001 -0.29999998 0.2905118
 1.3000001 -0.19999997 0.30077615
 1.3000001 -0.09999997 0.30710807
 1.3000001 2.9802322E-8 0.30924818
 1.3000001 0.10000003 0.30710807
 1.3000001 0.20000003 0.30077615
 1.3000001 0.30000004 0.2905118
 1.3000001 0.40000004 0.2767274
 1.3000001 0.50000006 0.25996134
 1.3000001 0.6 0.24084271
 1.3000001 0.70000005 0.22005254
 1.3000001 0.8000001 0.19828387
 1.3000001 0.90000004 0.1762043
 1.3000001 1. 0.15442364
 1.3000001 1.1 0.13346863
 1.3000001 1.2 0.113766044
 1.3000001 1.3000001 0.09563444
 1.3000001 1.4000001 0.07928373
 1.3000001 1.5 0.06482195
 1.3000001 1.6 0.052267063
 1.3000001 1.7 0.041562557
 1.3000001 1.8000001 0.032594517
 1.3000001 1.9000001 0.025208965
 1.3000001 2. 0.019227983
 1.4000001 -2. 0.015940554
 1.4000001 -1.9 0.020898972
 1.4000001 -1.8 0.02702181
 1.4000001 -1.7 0.03445657
 1.4000001 -1.6 0.04333092
 1.4000001 -1.5 0.053739276
 1.4000001 -1.4 0.06572854
 1.4000001 -1.3 0.07928375
 1.4000001 -1.2 0.094315365
 1.4000001 -1.1 0.11064938
 1.4000001 -1. 0.12802169
 1.4000001 -0.9 0.1460785
 1.4000001 -0.79999995 0.1643831
 1.4000001 -0.7 0.18242995
 1.4000001 -0.59999996 0.19966564
 1.4000001 -0.49999997 0.21551555
 1.4000001 -0.39999998 0.22941509
 1.4000001 -0.29999998 0.24084271
 1.4000001 -0.19999997 0.24935219
 1.4000001 -0.09999997 0.25460154
 1.4000001 2.9802322E-8 0.25637573
 1.4000001 0.10000003 0.25460154
 1.4000001 0.20000003 0.24935219
 1.4000001 0.30000004 0.24084271
 1.4000001 0.40000004 0.22941509
 1.4000001 0.50000006 0.21551552
 1.4000001 0.6 0.19966564
 1.4000001 0.70000005 0.18242995
 1.4000001 0.8000001 0.16438308
 1.4000001 0.90000004 0.1460785
 1.4000001 1. 0.12802169
 1.4000001 1.1 0.11064938
 1.4000001 1.2 0.094315365
 1.4000001 1.3000001 0.07928373
 1.4000001 1.4000001 0.06572852
 1.4000001 1.5 0.053739276
 1.4000001 1.6 0.04333092
 1.4000001 1.7 0.03445657
 1.4000001 1.8000001 0.027021805
 1.4000001 1.9000001 0.020898966
 1.4000001 2. 0.015940554
 1.5 -2. 0.013032915
 1.5 -1.9 0.017086884
 1.5 -1.8 0.022092888
 1.5 -1.7 0.028171508
 1.5 -1.6 0.03542712
 1.5 -1.5 0.043936945
 1.5 -1.4 0.053739287
 1.5 -1.3 0.06482195
 1.5 -1.2 0.077111736
 1.5 -1.1 0.09046632
 1.5 -1. 0.10466985
 1.5 -0.9 0.11943299
 1.5 -0.79999995 0.13439874
 1.5 -0.7 0.14915374
 1.5 -0.59999996 0.16324553
 1.5 -0.49999997 0.17620434
 1.5 -0.39999998 0.18756855
 1.5 -0.29999998 0.1969117
 1.5 -0.19999997 0.203869
 1.5 -0.09999997 0.20816083
 1.5 2.9802322E-8 0.20961142
 1.5 0.10000003 0.20816083
 1.5 0.20000003 0.203869
 1.5 0.30000004 0.1969117
 1.5 0.40000004 0.18756852
 1.5 0.50000006 0.17620432
 1.5 0.6 0.16324553
 1.5 0.70000005 0.14915374
 1.5 0.8000001 0.13439871
 1.5 0.90000004 0.11943299
 1.5 1. 0.10466985
 1.5 1.1 0.09046632
 1.5 1.2 0.077111736
 1.5 1.3000001 0.06482195
 1.5 1.4000001 0.053739276
 1.5 1.5 0.043936945
 1.5 1.6 0.03542712
 1.5 1.7 0.028171508
 1.5 1.8000001 0.022092883
 1.5 1.9000001 0.017086884
 1.5 2. 0.013032915
 1.6 -2. 0.010508663
 1.6 -1.9 0.013777453
 1.6 -1.8 0.017813882
 1.6 -1.7 0.022715176
 1.6 -1.6 0.028565507
 1.6 -1.5 0.03542712
 1.6 -1.4 0.04333093
 1.6 -1.3 0.05226708
 1.6 -1.2 0.06217653
 1.6 -1.1 0.072944574
 1.6 -1. 0.084397115
 1.6 -0.9 0.09630089
 1.6 -0.79999995 0.10836804
 1.6 -0.7 0.120265275
 1.6 -0.59999996 0.13162772
 1.6 -0.49999997 0.14207663
 1.6 -0.39999998 0.15123977
 1.6 -0.29999998 0.15877333
 1.6 -0.19999997 0.16438313
 1.6 -0.09999997 0.1678437
 1.6 2.9802322E-8 0.16901334
 1.6 0.10000003 0.1678437
 1.6 0.20000003 0.16438313
 1.6 0.30000004 0.15877333
 1.6 0.40000004 0.15123977
 1.6 0.50000006 0.14207661
 1.6 0.6 0.13162772
 1.6 0.70000005 0.120265245
 1.6 0.8000001 0.10836804
 1.6 0.90000004 0.09630089
 1.6 1. 0.084397115
 1.6 1.1 0.072944574
 1.6 1.2 0.06217653
 1.6 1.3000001 0.052267063
 1.6 1.4000001 0.04333092
 1.6 1.5 0.03542712
 1.6 1.6 0.028565507
 1.6 1.7 0.022715176
 1.6 1.8000001 0.017813874
 1.6 1.9000001 0.013777447
 1.6 2. 0.010508663
 1.7 -2. 0.008356447
 1.7 -1.9 0.010955777
 1.7 -1.8 0.014165523
 1.7 -1.7 0.018063014
 1.7 -1.6 0.022715176
 1.7 -1.5 0.028171508
 1.7 -1.4 0.034456577
 1.7 -1.3 0.04156257
 1.7 -1.2 0.049442522
 1.7 -1.1 0.058005232
 1.7 -1. 0.06711224
 1.7 -0.9 0.07657808
 1.7 -0.79999995 0.086173825
 1.7 -0.7 0.09563446
 1.7 -0.59999996 0.104669824
 1.7 -0.49999997 0.11297874
 1.7 -0.39999998 0.120265245
 1.7 -0.29999998 0.12625591
 1.7 -0.19999997 0.1307168
 1.7 -0.09999997 0.13346863
 1.7 2.9802322E-8 0.13439871
 1.7 0.10000003 0.13346863
 1.7 0.20000003 0.1307168
 1.7 0.30000004 0.12625591
 1.7 0.40000004 0.120265245
 1.7 0.50000006 0.11297874
 1.7 0.6 0.104669824
 1.7 0.70000005 0.09563446
 1.7 0.8000001 0.086173825
 1.7 0.90000004 0.07657808
 1.7 1. 0.06711224
 1.7 1.1 0.058005232
 1.7 1.2 0.049442522
 1.7 1.3000001 0.041562557
 1.7 1.4000001 0.03445657
 1.7 1.5 0.028171508
 1.7 1.6 0.022715176
 1.7 1.7 0.018063014
 1.7 1.8000001 0.014165523
 1.7 1.9000001 0.010955772
 1.7 2. 0.008356447
 1.8000001 -2. 0.006553358
 1.8000001 -1.9 0.008591824
 1.8000001 -1.8 0.011109002
 1.8000001 -1.7 0.014165523
 1.8000001 -1.6 0.017813874
 1.8000001 -1.5 0.022092883
 1.8000001 -1.4 0.02702181
 1.8000001 -1.3 0.032594524
 1.8000001 -1.2 0.038774207
 1.8000001 -1.1 0.045489322
 1.8000001 -1. 0.052631292
 1.8000001 -0.9 0.060054667
 1.8000001 -0.79999995 0.06757992
 1.8000001 -0.7 0.07499921
 1.8000001 -0.59999996 0.082085
 1.8000001 -0.49999997 0.08860108
 1.8000001 -0.39999998 0.094315365
 1.8000001 -0.29999998 0.09901341
 1.8000001 -0.19999997 0.10251177
 1.8000001 -0.09999997 0.104669824
 1.8000001 2.9802322E-8 0.10539922
 1.8000001 0.10000003 0.104669824
 1.8000001 0.20000003 0.10251177
 1.8000001 0.30000004 0.09901341
 1.8000001 0.40000004 0.094315365
 1.8000001 0.50000006 0.08860108
 1.8000001 0.6 0.082085
 1.8000001 0.70000005 0.07499919
 1.8000001 0.8000001 0.06757992
 1.8000001 0.90000004 0.060054667
 1.8000001 1. 0.052631292
 1.8000001 1.1 0.045489322
 1.8000001 1.2 0.038774207
 1.8000001 1.3000001 0.032594517
 1.8000001 1.4000001 0.027021805
 1.8000001 1.5 0.022092883
 1.8000001 1.6 0.017813874
 1.8000001 1.7 0.014165523
 1.8000001 1.8000001 0.011108996
 1.8000001 1.9000001 0.0085918205
 1.8000001 2. 0.006553358
 1.9000001 -2. 0.005068442
 1.9000001 -1.9 0.0066450117
 1.9000001 -1.8 0.008591824
 1.9000001 -1.7 0.010955772
 1.9000001 -1.6 0.013777447
 1.9000001 -1.5 0.017086884
 1.9000001 -1.4 0.020898972
 1.9000001 -1.3 0.02520897
 1.9000001 -1.2 0.029988406
 1.9000001 -1.1 0.035181943
 1.9000001 -1. 0.040705632
 1.9000001 -0.9 0.046446953
 1.9000001 -0.79999995 0.052267063
 1.9000001 -0.7 0.058005217
 1.9000001 -0.59999996 0.06348546
 1.9000001 -0.49999997 0.068525076
 1.9000001 -0.39999998 0.07294456
 1.9000001 -0.29999998 0.07657808
 1.9000001 -0.19999997 0.07928373
 1.9000001 -0.09999997 0.080952816
 1.9000001 2.9802322E-8 0.081516944
 1.9000001 0.10000003 0.080952816
 1.9000001 0.20000003 0.07928373
 1.9000001 0.30000004 0.07657808
 1.9000001 0.40000004 0.07294456
 1.9000001 0.50000006 0.068525076
 1.9000001 0.6 0.06348546
 1.9000001 0.70000005 0.058005217
 1.9000001 0.8000001 0.052267052
 1.9000001 0.90000004 0.046446953
 1.9000001 1. 0.040705632
 1.9000001 1.1 0.035181943
 1.9000001 1.2 0.029988406
 1.9000001 1.3000001 0.025208965
 1.9000001 1.4000001 0.020898966
 1.9000001 1.5 0.017086884
 1.9000001 1.6 0.013777447
 1.9000001 1.7 0.010955772
 1.9000001 1.8000001 0.0085918205
 1.9000001 1.9000001 0.0066450117
 1.9000001 2. 0.005068442
 2. -2. 0.003865921
 2. -1.9 0.005068442
 2. -1.8 0.006553361
 2. -1.7 0.008356447
 2. -1.6 0.010508663
 2. -1.5 0.013032915
 2. -1.4 0.015940562
 2. -1.3 0.019227983
 2. -1.2 0.022873467
 2. -1.1 0.02683481
 2. -1. 0.03104797
 2. -0.9 0.035427127
 2. -0.79999995 0.039866384
 2. -0.7 0.044243123
 2. -0.59999996 0.04842314
 2. -0.49999997 0.05226708
 2. -0.39999998 0.055638015
 2. -0.29999998 0.05840946
 2. -0.19999997 0.060473178
 2. -0.09999997 0.061746247
 2. 2.9802322E-8 0.06217653
 2. 0.10000003 0.061746247
 2. 0.20000003 0.060473178
 2. 0.30000004 0.058409445
 2. 0.40000004 0.055638015
 2. 0.50000006 0.05226708
 2. 0.6 0.04842313
 2. 0.70000005 0.044243123
 2. 0.8000001 0.039866373
 2. 0.90000004 0.03542712
 2. 1. 0.03104797
 2. 1.1 0.02683481
 2. 1.2 0.022873467
 2. 1.3000001 0.019227983
 2. 1.4000001 0.015940554
 2. 1.5 0.013032915
 2. 1.6 0.010508663
 2. 1.7 0.008356447
 2. 1.8000001 0.006553358
 2. 1.9000001 0.005068442
 2. 2. 0.003865921
